ply
format ascii 1.0
element vertex 961
property float x
property float y
property float z
end_header
0 0 4640.92
0 0 4640.92
0 0 4640.92
0 0 4640.92
0 0 4640.92
0 0 4640.92
0 0 4640.92
0 0 4640.92
-0 0 4640.92
-0 0 4640.92
-0 0 4640.92
-0 0 4640.92
-0 0 4640.92
-0 0 4640.92
-0 0 4640.92
-0 0 4640.92
-0 -0 4640.92
-0 -0 4640.92
-0 -0 4640.92
-0 -0 4640.92
-0 -0 4640.92
-0 -0 4640.92
-0 -0 4640.92
-0 -0 4640.92
0 -0 4640.92
0 -0 4640.92
0 -0 4640.92
0 -0 4640.92
0 -0 4640.92
0 -0 4640.92
0 -0 4640.92
469.514 0 4617.11
459.903 94.5125 4617.11
431.464 185.156 4617.11
385.36 268.219 4617.11
323.48 340.301 4617.11
248.356 398.451 4617.11
163.065 440.288 4617.11
71.0975 464.1 4617.11
-23.7805 468.912 4617.11
-117.685 454.526 4617.11
-206.771 421.532 4617.11
-287.393 371.281 4617.11
-356.248 305.829 4617.11
-410.518 227.856 4617.11
-447.982 140.555 4617.11
-467.105 47.5 4617.11
-467.105 -47.5 4617.11
-447.982 -140.555 4617.11
-410.518 -227.856 4617.11
-356.248 -305.829 4617.11
-287.393 -371.281 4617.11
-206.771 -421.532 4617.11
-117.685 -454.526 4617.11
-23.7805 -468.912 4617.11
71.0975 -464.1 4617.11
163.065 -440.288 4617.11
248.356 -398.451 4617.11
323.48 -340.301 4617.11
385.36 -268.219 4617.11
431.464 -185.156 4617.11
459.903 -94.5125 4617.11
934.211 0 4545.92
915.088 188.055 4545.92
858.5 368.412 4545.92
766.766 533.685 4545.92
643.64 677.109 4545.92
494.164 792.813 4545.92
324.456 876.058 4545.92
141.465 923.438 4545.92
-47.317 933.012 4545.92
-234.162 904.388 4545.92
-411.421 838.739 4545.92
-571.836 738.751 4545.92
-708.84 608.519 4545.92
-816.824 453.374 4545.92
-891.367 279.668 4545.92
-929.418 94.5125 4545.92
-929.418 -94.5125 4545.92
-891.367 -279.668 4545.92
-816.824 -453.374 4545.92
-708.84 -608.519 4545.92
-571.836 -738.751 4545.92
-411.421 -838.739 4545.92
-234.162 -904.388 4545.92
-47.317 -933.012 4545.92
141.465 -923.438 4545.92
324.456 -876.058 4545.92
494.164 -792.813 4545.92
643.64 -677.109 4545.92
766.766 -533.685 4545.92
858.5 -368.412 4545.92
915.088 -188.055 4545.92
1528.25 0 4870.9
1496.97 307.635 4870.9
1404.4 602.676 4870.9
1254.33 873.042 4870.9
1052.92 1107.67 4870.9
808.391 1296.94 4870.9
530.77 1433.12 4870.9
231.42 1510.63 4870.9
-77.4048 1526.29 4870.9
-383.061 1479.47 4870.9
-673.034 1372.07 4870.9
-935.453 1208.51 4870.9
-1159.57 995.462 4870.9
-1336.22 741.664 4870.9
-1458.17 457.503 4870.9
-1520.41 154.611 4870.9
-1520.41 -154.611 4870.9
-1458.17 -457.503 4870.9
-1336.22 -741.664 4870.9
-1159.57 -995.462 4870.9
-935.453 -1208.51 4870.9
-673.034 -1372.07 4870.9
-383.061 -1479.47 4870.9
-77.4048 -1526.29 4870.9
231.42 -1510.63 4870.9
530.77 -1433.12 4870.9
808.391 -1296.94 4870.9
1052.92 -1107.67 4870.9
1254.33 -873.042 4870.9
1404.4 -602.676 4870.9
1496.97 -307.635 4870.9
2013.19 0 4691.29
1971.98 405.253 4691.29
1850.04 793.914 4691.29
1652.35 1150.07 4691.29
1387.02 1459.15 4691.29
1064.91 1708.48 4691.29
699.192 1887.88 4691.29
304.853 1989.98 4691.29
-101.967 2010.61 4691.29
-504.612 1948.93 4691.29
-886.598 1807.45 4691.29
-1232.29 1591.98 4691.29
-1527.53 1311.34 4691.29
-1760.23 977.006 4691.29
-1920.87 602.676 4691.29
-2002.86 203.671 4691.29
-2002.86 -203.671 4691.29
-1920.87 -602.676 4691.29
-1760.23 -977.006 4691.29
-1527.53 -1311.34 4691.29
-1232.29 -1591.98 4691.29
-886.598 -1807.45 4691.29
-504.612 -1948.93 4691.29
-101.967 -2010.61 4691.29
304.853 -1989.98 4691.29
699.192 -1887.88 4691.29
1064.91 -1708.48 4691.29
1387.02 -1459.15 4691.29
1652.35 -1150.07 4691.29
1850.04 -793.914 4691.29
1971.98 -405.253 4691.29
2698.24 0 4861.29
2643.01 543.151 4861.29
2479.57 1064.07 4861.29
2214.62 1541.42 4861.29
1859 1955.66 4861.29
1427.27 2289.84 4861.29
937.113 2530.28 4861.29
408.588 2667.12 4861.29
-136.664 2694.78 4861.29
-676.32 2612.1 4861.29
-1188.29 2422.49 4861.29
-1651.61 2133.7 4861.29
-2047.31 1757.56 4861.29
-2359.2 1309.46 4861.29
-2574.5 807.753 4861.29
-2684.39 272.976 4861.29
-2684.39 -272.976 4861.29
-2574.5 -807.753 4861.29
-2359.2 -1309.46 4861.29
-2047.31 -1757.56 4861.29
-1651.61 -2133.7 4861.29
-1188.29 -2422.49 4861.29
-676.32 -2612.1 4861.29
-136.664 -2694.78 4861.29
408.588 -2667.12 4861.29
937.113 -2530.28 4861.29
1427.27 -2289.84 4861.29
1859 -1955.66 4861.29
2214.62 -1541.42 4861.29
2479.57 -1064.07 4861.29
2643.01 -543.151 4861.29
3207.97 0 4609.01
3142.3 645.759 4609.01
2947.99 1265.08 4609.01
2632.98 1832.61 4609.01
2210.18 2325.11 4609.01
1696.9 2722.42 4609.01
1114.14 3008.28 4609.01
485.775 3170.97 4609.01
-162.481 3203.85 4609.01
-804.085 3105.56 4609.01
-1412.77 2880.13 4609.01
-1963.62 2536.78 4609.01
-2434.07 2089.58 4609.01
-2804.87 1556.83 4609.01
-3060.85 960.347 4609.01
-3191.51 324.545 4609.01
-3191.51 -324.545 4609.01
-3060.85 -960.347 4609.01
-2804.87 -1556.83 4609.01
-2434.07 -2089.58 4609.01
-1963.62 -2536.78 4609.01
-1412.77 -2880.13 4609.01
-804.085 -3105.56 4609.01
-162.481 -3203.85 4609.01
485.775 -3170.97 4609.01
1114.14 -3008.28 4609.01
1696.9 -2722.42 4609.01
2210.18 -2325.11 4609.01
2632.98 -1832.61 4609.01
2947.99 -1265.08 4609.01
3142.3 -645.759 4609.01
4023.57 0 4686.9
3941.21 809.939 4686.9
3697.49 1586.72 4686.9
3302.4 2298.54 4686.9
2772.11 2916.26 4686.9
2128.32 3414.58 4686.9
1397.41 3773.11 4686.9
609.281 3977.17 4686.9
-203.791 4018.41 4686.9
-1008.52 3895.13 4686.9
-1771.96 3612.38 4686.9
-2462.85 3181.74 4686.9
-3052.92 2620.84 4686.9
-3518 1952.65 4686.9
-3839.05 1204.51 4686.9
-4002.93 407.058 4686.9
-4002.93 -407.058 4686.9
-3839.05 -1204.51 4686.9
-3518 -1952.65 4686.9
-3052.92 -2620.84 4686.9
-2462.85 -3181.74 4686.9
-1771.96 -3612.38 4686.9
-1008.52 -3895.13 4686.9
-203.791 -4018.41 4686.9
609.281 -3977.17 4686.9
1397.41 -3773.11 4686.9
2128.32 -3414.58 4686.9
2772.11 -2916.26 4686.9
3302.4 -2298.54 4686.9
3697.49 -1586.72 4686.9
3941.21 -809.939 4686.9
4477.09 0 4255.8
4385.45 901.232 4255.8
4114.26 1765.57 4255.8
3674.64 2557.62 4255.8
3084.57 3244.97 4255.8
2368.22 3799.46 4255.8
1554.92 4198.4 4255.8
677.956 4425.47 4255.8
-226.761 4471.35 4255.8
-1122.2 4334.17 4255.8
-1971.69 4019.56 4255.8
-2740.46 3540.38 4255.8
-3397.03 2916.26 4255.8
-3914.53 2172.74 4255.8
-4271.77 1340.28 4255.8
-4454.12 452.94 4255.8
-4454.12 -452.94 4255.8
-4271.77 -1340.28 4255.8
-3875.77 -2151.23 4213.66
-3397.03 -2916.26 4255.8
-2713.32 -3505.32 4213.66
-1952.16 -3979.76 4213.66
-1111.08 -4291.26 4213.66
-224.516 -4427.08 4213.66
671.244 -4381.65 4213.66
1539.52 -4156.84 4213.66
2579.25 -4138.03 4635.02
3359.43 -3534.12 4635.02
4002.08 -2785.53 4635.02
4480.88 -1922.9 4635.02
4776.23 -981.54 4635.02
5319.94 0 4117.94
5211.04 1070.9 4117.94
4888.8 2097.95 4117.94
4366.42 3039.11 4117.94
3665.27 3855.86 4117.94
2814.06 4514.74 4117.94
1847.64 4988.79 4117.94
805.587 5258.6 4117.94
-269.451 5313.12 4117.94
-1333.46 5150.12 4117.94
-2342.87 4776.27 4117.94
-3256.37 4206.88 4117.94
-4036.55 3465.26 4117.94
-4651.47 2581.78 4117.94
-5075.97 1592.59 4117.94
-4811.5 489.282 3743.58
-4811.5 -489.282 3743.58
-4614.52 -1447.81 3743.58
-4651.47 -2581.78 4117.94
-4036.55 -3465.26 4117.94
-2960.34 -3824.44 3743.58
-2342.87 -4776.27 4117.94
-1333.46 -5150.12 4117.94
-244.955 -4830.11 3743.58
805.587 -5258.6 4117.94
1847.64 -4988.79 4117.94
2814.06 -4514.74 4117.94
3665.27 -3855.86 4117.94
4366.42 -3039.11 4117.94
4888.8 -2097.95 4117.94
5211.04 -1070.9 4117.94
5709.25 0 3558.61
5592.39 1149.26 3558.61
5246.56 2251.48 3558.61
4685.95 3261.52 3558.61
3933.49 4138.03 3558.61
3019.99 4845.13 3558.61
1982.85 5353.87 3558.61
864.54 5643.42 3558.61
-289.169 5701.93 3558.61
-1431.04 5527 3558.61
-2514.32 5125.79 3558.61
-3494.67 4514.74 3558.61
-4331.94 3718.85 3558.61
-4991.87 2770.71 3558.61
-4952.2 1553.76 3235.1
-5679.96 577.596 3558.61
-5163.6 -525.087 3235.1
-5447.42 -1709.14 3558.61
-4991.87 -2770.71 3558.61
-4331.94 -3718.85 3558.61
-3494.67 -4514.74 3558.61
-2514.32 -5125.79 3558.61
-1431.04 -5527 3558.61
-262.881 -5183.57 3235.1
785.945 -5130.38 3235.1
1982.85 -5353.87 3558.61
3019.99 -4845.13 3558.61
3575.9 -3761.84 3235.1
4685.95 -3261.52 3558.61
5246.56 -2251.48 3558.61
5592.39 -1149.26 3558.61
6039.98 0 2962.75
5916.34 1215.84 2962.75
5550.49 2381.9 2962.75
4957.39 3450.45 2962.75
4161.35 4377.73 2962.75
3194.93 5125.79 2962.75
2097.72 5664 2962.75
914.621 5970.33 2962.75
-305.92 6032.23 2962.75
-1513.94 5847.17 2962.75
-2659.97 5422.72 2962.75
-3697.11 4776.27 2962.75
-4582.88 3934.28 2962.75
-5809.14 3224.34 3259.03
-5239.07 1643.77 2693.41
-5462.72 555.504 2693.41
-5462.72 -555.504 2693.41
-5239.07 -1643.77 2693.41
-4800.94 -2664.74 2693.41
-4166.26 -3576.62 2693.41
-3361.01 -4342.06 2693.41
-2418.16 -4929.75 2693.41
-1376.31 -5315.61 2693.41
-278.109 -5483.84 2693.41
831.473 -5427.57 2693.41
1907.02 -5149.09 2693.41
2904.48 -4659.81 2693.41
3783.04 -3979.76 2693.41
4506.72 -3136.77 2693.41
5045.9 -2165.36 2693.41
5378.49 -1105.31 2693.41
5735.21 0 2124.09
5617.81 1154.49 2124.09
5270.41 2261.71 2124.09
4707.25 3276.34 2124.09
3951.37 4156.84 2124.09
3033.72 4867.15 2124.09
1991.87 5378.2 2124.09
868.47 5669.07 2124.09
-290.483 5727.85 2124.09
-1437.54 5552.12 2124.09
-2525.75 5149.09 2124.09
-3510.55 4535.26 2124.09
-4351.63 3735.76 2124.09
-5014.56 2783.31 2124.09
-5472.19 1716.91 2124.09
-5705.78 580.221 2124.09
-5705.78 -580.221 2124.09
-5472.19 -1716.91 2124.09
-5014.56 -2783.31 2124.09
-4351.63 -3735.76 2124.09
-3510.55 -4535.26 2124.09
-2525.75 -5149.09 2124.09
-1437.54 -5552.12 2124.09
-264.076 -5207.13 1930.99
789.518 -5153.7 1930.99
1991.87 -5378.2 2124.09
3033.72 -4867.15 2124.09
3592.15 -3778.94 1930.99
4707.25 -3276.34 2124.09
4791.28 -2056.1 1930.99
5107.1 -1049.54 1930.99
5382.43 0 1393.61
5272.25 1083.47 1393.61
4946.22 2122.59 1393.61
4417.7 3074.81 1393.61
3708.32 3901.15 1393.61
2847.11 4567.77 1393.61
1869.35 5047.38 1393.61
815.049 5320.36 1393.61
-272.616 5375.52 1393.61
-1349.12 5210.61 1393.61
-2370.39 4832.37 1393.61
-3294.62 4256.29 1393.61
-4083.96 3505.97 1393.61
-4706.11 2612.1 1393.61
-5135.59 1611.3 1393.61
-5354.81 544.531 1393.61
-5354.81 -544.531 1393.61
-5135.59 -1611.3 1393.61
-4706.11 -2612.1 1393.61
-4083.96 -3505.97 1393.61
-3294.62 -4256.29 1393.61
-2370.39 -4832.37 1393.61
-1349.12 -5210.61 1393.61
-272.616 -5375.52 1393.61
815.049 -5320.36 1393.61
1869.35 -5047.38 1393.61
2847.11 -4567.77 1393.61
3708.32 -3901.15 1393.61
4417.7 -3074.81 1393.61
4946.22 -2122.59 1393.61
5272.25 -1083.47 1393.61
5495.8 0 841.926
5383.3 1106.3 841.926
5050.41 2167.3 841.926
4510.75 3139.58 841.926
3786.43 3983.32 841.926
2907.08 4663.98 841.926
1908.72 5153.7 841.926
832.217 5432.43 841.926
-278.358 5488.75 841.926
-1377.54 5320.36 841.926
-2420.32 4934.16 841.926
-3364.01 4345.95 841.926
-4169.98 3579.81 841.926
-4805.24 2667.12 841.926
-5243.76 1645.24 841.926
-5467.6 556.001 841.926
-5467.6 -556.001 841.926
-5243.76 -1645.24 841.926
-4805.24 -2667.12 841.926
-4169.98 -3579.81 841.926
-3364.01 -4345.95 841.926
-2420.32 -4934.16 841.926
-1377.54 -5320.36 841.926
-278.358 -5488.75 841.926
832.217 -5432.43 841.926
1908.72 -5153.7 841.926
2907.08 -4663.98 841.926
3786.43 -3983.32 841.926
4510.75 -3139.58 841.926
5050.41 -2167.3 841.926
5383.3 -1106.3 841.926
5552.78 0 281.605
5439.12 1117.77 281.605
5102.77 2189.77 281.605
4557.52 3172.13 281.605
3825.68 4024.62 281.605
2937.22 4712.34 281.605
1928.51 5207.13 281.605
840.845 5488.75 281.605
-281.244 5545.65 281.605
-1391.82 5375.52 281.605
-2445.41 4985.31 281.605
-3398.89 4391 281.605
-4213.22 3616.93 281.605
-4855.06 2694.78 281.605
-5298.13 1662.3 281.605
-5524.29 561.766 281.605
-5524.29 -561.766 281.605
-5298.13 -1662.3 281.605
-4855.06 -2694.78 281.605
-4213.22 -3616.93 281.605
-3398.89 -4391 281.605
-2445.41 -4985.31 281.605
-1391.82 -5375.52 281.605
-281.244 -5545.65 281.605
840.845 -5488.75 281.605
1928.51 -5207.13 281.605
2937.22 -4712.34 281.605
3825.68 -4024.62 281.605
4557.52 -3172.13 281.605
5102.77 -2189.77 281.605
5439.12 -1117.77 281.605
5552.78 0 -281.605
5439.12 1117.77 -281.605
5102.77 2189.77 -281.605
4557.52 3172.13 -281.605
3825.68 4024.62 -281.605
2937.22 4712.34 -281.605
1928.51 5207.13 -281.605
840.845 5488.75 -281.605
-281.244 5545.65 -281.605
-1391.82 5375.52 -281.605
-2445.41 4985.31 -281.605
-3398.89 4391 -281.605
-4213.22 3616.93 -281.605
-4855.06 2694.78 -281.605
-5298.13 1662.3 -281.605
-5524.29 561.766 -281.605
-5524.29 -561.766 -281.605
-5298.13 -1662.3 -281.605
-4855.06 -2694.78 -281.605
-4213.22 -3616.93 -281.605
-3398.89 -4391 -281.605
-2445.41 -4985.31 -281.605
-1391.82 -5375.52 -281.605
-281.244 -5545.65 -281.605
840.845 -5488.75 -281.605
1928.51 -5207.13 -281.605
2937.22 -4712.34 -281.605
3825.68 -4024.62 -281.605
4557.52 -3172.13 -281.605
5102.77 -2189.77 -281.605
5439.12 -1117.77 -281.605
5495.8 0 -841.926
5383.3 1106.3 -841.926
5050.41 2167.3 -841.926
4510.75 3139.58 -841.926
3786.43 3983.32 -841.926
2907.08 4663.98 -841.926
1908.72 5153.7 -841.926
832.217 5432.43 -841.926
-278.358 5488.75 -841.926
-1377.54 5320.36 -841.926
-2420.32 4934.16 -841.926
-3364.01 4345.95 -841.926
-4169.98 3579.81 -841.926
-4805.24 2667.12 -841.926
-5243.76 1645.24 -841.926
-5467.6 556.001 -841.926
-5467.6 -556.001 -841.926
-5243.76 -1645.24 -841.926
-4805.24 -2667.12 -841.926
-4169.98 -3579.81 -841.926
-3364.01 -4345.95 -841.926
-2420.32 -4934.16 -841.926
-1377.54 -5320.36 -841.926
-278.358 -5488.75 -841.926
832.217 -5432.43 -841.926
1908.72 -5153.7 -841.926
2907.08 -4663.98 -841.926
3786.43 -3983.32 -841.926
4510.75 -3139.58 -841.926
5050.41 -2167.3 -841.926
5383.3 -1106.3 -841.926
5382.43 0 -1393.61
5272.25 1083.47 -1393.61
4946.22 2122.59 -1393.61
4417.7 3074.81 -1393.61
3708.32 3901.15 -1393.61
2847.11 4567.77 -1393.61
1869.35 5047.38 -1393.61
815.049 5320.36 -1393.61
-272.616 5375.52 -1393.61
-1349.12 5210.61 -1393.61
-2370.39 4832.37 -1393.61
-3294.62 4256.29 -1393.61
-4083.96 3505.97 -1393.61
-4706.11 2612.1 -1393.61
-5135.59 1611.3 -1393.61
-5354.81 544.531 -1393.61
-5354.81 -544.531 -1393.61
-5135.59 -1611.3 -1393.61
-4706.11 -2612.1 -1393.61
-4083.96 -3505.97 -1393.61
-3294.62 -4256.29 -1393.61
-2370.39 -4832.37 -1393.61
-1349.12 -5210.61 -1393.61
-272.616 -5375.52 -1393.61
815.049 -5320.36 -1393.61
1869.35 -5047.38 -1393.61
2847.11 -4567.77 -1393.61
3708.32 -3901.15 -1393.61
4417.7 -3074.81 -1393.61
4946.22 -2122.59 -1393.61
5272.25 -1083.47 -1393.61
5213.82 0 -1930.99
5107.1 1049.54 -1930.99
4791.28 2056.1 -1930.99
4279.32 2978.49 -1930.99
3592.15 3778.94 -1930.99
2757.93 4424.68 -1930.99
1810.79 4889.27 -1930.99
789.518 5153.7 -1930.99
-264.076 5207.13 -1930.99
-1306.86 5047.38 -1930.99
-2296.14 4681 -1930.99
-3191.41 4122.97 -1930.99
-3956.03 3396.14 -1930.99
-4558.69 2530.28 -1930.99
-4974.71 1560.83 -1930.99
-5187.07 527.474 -1930.99
-5187.07 -527.474 -1930.99
-4974.71 -1560.83 -1930.99
-4558.69 -2530.28 -1930.99
-3956.03 -3396.14 -1930.99
-3191.41 -4122.97 -1930.99
-2296.14 -4681 -1930.99
-1306.86 -5047.38 -1930.99
-264.076 -5207.13 -1930.99
789.518 -5153.7 -1930.99
1810.79 -4889.27 -1930.99
2757.93 -4424.68 -1930.99
3592.15 -3778.94 -1930.99
4279.32 -2978.49 -1930.99
4791.28 -2056.1 -1930.99
5107.1 -1049.54 -1930.99
4991.72 0 -2448.56
4889.54 1004.83 -2448.56
4587.18 1968.51 -2448.56
4097.02 2851.61 -2448.56
3439.13 3617.96 -2448.56
2640.44 4236.19 -2448.56
1733.65 4681 -2448.56
755.885 4934.16 -2448.56
-252.826 4985.31 -2448.56
-1251.19 4832.37 -2448.56
-2198.32 4481.59 -2448.56
-3055.46 3947.33 -2448.56
-3787.51 3251.47 -2448.56
-4364.49 2422.49 -2448.56
-4762.8 1494.34 -2448.56
-4966.11 505.004 -2448.56
-4966.11 -505.004 -2448.56
-4762.8 -1494.34 -2448.56
-4364.49 -2422.49 -2448.56
-3787.51 -3251.47 -2448.56
-3055.46 -3947.33 -2448.56
-2198.32 -4481.59 -2448.56
-1251.19 -4832.37 -2448.56
-252.826 -4985.31 -2448.56
755.885 -4934.16 -2448.56
1733.65 -4681 -2448.56
2640.44 -4236.19 -2448.56
3439.13 -3617.96 -2448.56
4097.02 -2851.61 -2448.56
4587.18 -1968.51 -2448.56
4889.54 -1004.83 -2448.56
4718.39 0 -2941
4621.81 949.805 -2941
4336 1860.73 -2941
3872.68 2695.47 -2941
3250.82 3419.86 -2941
2495.86 4004.24 -2941
1638.72 4424.68 -2941
714.496 4663.98 -2941
-238.983 4712.34 -2941
-1182.68 4567.77 -2941
-2077.95 4236.19 -2941
-2888.16 3731.19 -2941
-3580.12 3073.43 -2941
-4125.51 2289.84 -2941
-4502 1412.51 -2941
-4694.18 477.352 -2941
-4694.18 -477.352 -2941
-4502 -1412.51 -2941
-4125.51 -2289.84 -2941
-3580.12 -3073.43 -2941
-2888.16 -3731.19 -2941
-2077.95 -4236.19 -2941
-1182.68 -4567.77 -2941
-238.983 -4712.34 -2941
714.496 -4663.98 -2941
1638.72 -4424.68 -2941
2495.86 -4004.24 -2941
3250.82 -3419.86 -2941
3872.68 -2695.47 -2941
4336 -1860.73 -2941
4621.81 -949.805 -2941
4396.65 0 -3403.26
4306.65 885.039 -3403.26
4040.33 1733.84 -3403.26
3608.61 2511.67 -3403.26
3029.14 3186.66 -3403.26
2325.67 3731.19 -3403.26
1526.98 4122.97 -3403.26
665.775 4345.95 -3403.26
-222.687 4391 -3403.26
-1102.03 4256.29 -3403.26
-1936.26 3947.33 -3403.26
-2691.21 3476.76 -3403.26
-3335.99 2863.86 -3403.26
-3844.19 2133.7 -3403.26
-4195.01 1316.19 -3403.26
-4374.09 444.801 -3403.26
-4374.09 -444.801 -3403.26
-4195.01 -1316.19 -3403.26
-3844.19 -2133.7 -3403.26
-3335.99 -2863.86 -3403.26
-2691.21 -3476.76 -3403.26
-1936.26 -3947.33 -3403.26
-1102.03 -4256.29 -3403.26
-222.687 -4391 -3403.26
665.775 -4345.95 -3403.26
1526.98 -4122.97 -3403.26
2325.67 -3731.19 -3403.26
3029.14 -3186.66 -3403.26
3608.61 -2511.67 -3403.26
4040.33 -1733.84 -3403.26
4306.65 -885.039 -3403.26
4029.79 0 -3830.6
3947.3 811.19 -3830.6
3703.21 1589.17 -3830.6
3307.5 2302.09 -3830.6
2776.39 2920.76 -3830.6
2131.61 3419.86 -3830.6
1399.57 3778.94 -3830.6
610.222 3983.32 -3830.6
-204.105 4024.62 -3830.6
-1010.08 3901.15 -3830.6
-1774.7 3617.96 -3830.6
-2466.66 3186.66 -3830.6
-3057.63 2624.89 -3830.6
-3523.43 1955.66 -3830.6
-3844.98 1206.37 -3830.6
-4009.11 407.687 -3830.6
-4009.11 -407.687 -3830.6
-3844.98 -1206.37 -3830.6
-3523.43 -1955.66 -3830.6
-3057.63 -2624.89 -3830.6
-2466.66 -3186.66 -3830.6
-1774.7 -3617.96 -3830.6
-1010.08 -3901.15 -3830.6
-204.105 -4024.62 -3830.6
610.222 -3983.32 -3830.6
1399.57 -3778.94 -3830.6
2131.61 -3419.86 -3830.6
2776.39 -2920.76 -3830.6
3307.5 -2302.09 -3830.6
3703.21 -1589.17 -3830.6
3947.3 -811.19 -3830.6
3621.58 0 -4218.63
3547.44 729.018 -4218.63
3328.08 1428.19 -4218.63
2972.46 2068.89 -4218.63
2495.15 2624.89 -4218.63
1915.68 3073.43 -4218.63
1257.79 3396.14 -4218.63
548.407 3579.81 -4218.63
-183.43 3616.93 -4218.63
-907.757 3505.97 -4218.63
-1594.92 3251.47 -4218.63
-2216.79 2863.86 -4218.63
-2747.9 2359 -4218.63
-3166.51 1757.56 -4218.63
-3455.49 1084.17 -4218.63
-3603 366.389 -4218.63
-3603 -366.389 -4218.63
-3455.49 -1084.17 -4218.63
-3166.51 -1757.56 -4218.63
-2747.9 -2359 -4218.63
-2216.79 -2863.86 -4218.63
-1594.92 -3251.47 -4218.63
-907.757 -3505.97 -4218.63
-183.43 -3616.93 -4218.63
548.407 -3579.81 -4218.63
1257.79 -3396.14 -4218.63
1915.68 -3073.43 -4218.63
2495.15 -2624.89 -4218.63
2972.46 -2068.89 -4218.63
3328.08 -1428.19 -4218.63
3547.44 -729.018 -4218.63
3176.2 0 -4563.38
3111.19 639.365 -4563.38
2918.8 1252.55 -4563.38
2606.91 1814.46 -4563.38
2188.3 2302.09 -4563.38
1680.1 2695.47 -4563.38
1103.11 2978.49 -4563.38
480.966 3139.58 -4563.38
-160.872 3172.13 -4563.38
-796.124 3074.81 -4563.38
-1398.78 2851.61 -4563.38
-1944.17 2511.67 -4563.38
-2409.97 2068.89 -4563.38
-2777.1 1541.42 -4563.38
-3030.54 950.838 -4563.38
-3159.91 321.331 -4563.38
-3159.91 -321.331 -4563.38
-3030.54 -950.838 -4563.38
-2777.1 -1541.42 -4563.38
-2409.97 -2068.89 -4563.38
-1944.17 -2511.67 -4563.38
-1398.78 -2851.61 -4563.38
-796.124 -3074.81 -4563.38
-160.872 -3172.13 -4563.38
480.966 -3139.58 -4563.38
1103.11 -2978.49 -4563.38
1680.1 -2695.47 -4563.38
2188.3 -2302.09 -4563.38
2606.91 -1814.46 -4563.38
2918.8 -1252.55 -4563.38
3111.19 -639.365 -4563.38
2698.24 0 -4861.29
2643.01 543.151 -4861.29
2479.57 1064.07 -4861.29
2214.62 1541.42 -4861.29
1859 1955.66 -4861.29
1427.27 2289.84 -4861.29
937.113 2530.28 -4861.29
408.588 2667.12 -4861.29
-136.664 2694.78 -4861.29
-676.32 2612.1 -4861.29
-1188.29 2422.49 -4861.29
-1651.61 2133.7 -4861.29
-2047.31 1757.56 -4861.29
-2359.2 1309.46 -4861.29
-2574.5 807.753 -4861.29
-2684.39 272.976 -4861.29
-2684.39 -272.976 -4861.29
-2574.5 -807.753 -4861.29
-2359.2 -1309.46 -4861.29
-2047.31 -1757.56 -4861.29
-1651.61 -2133.7 -4861.29
-1188.29 -2422.49 -4861.29
-676.32 -2612.1 -4861.29
-136.664 -2694.78 -4861.29
408.588 -2667.12 -4861.29
937.113 -2530.28 -4861.29
1427.27 -2289.84 -4861.29
1859 -1955.66 -4861.29
2214.62 -1541.42 -4861.29
2479.57 -1064.07 -4861.29
2643.01 -543.151 -4861.29
1993.26 0 -4644.84
1952.46 401.24 -4644.84
1831.72 786.054 -4644.84
1635.99 1138.69 -4644.84
1373.29 1444.7 -4644.84
1054.36 1691.57 -4644.84
692.27 1869.18 -4644.84
301.835 1970.27 -4644.84
-100.957 1990.7 -4644.84
-499.616 1929.63 -4644.84
-877.82 1789.56 -4644.84
-1220.09 1576.22 -4644.84
-1512.4 1298.35 -4644.84
-1742.8 967.333 -4644.84
-1901.85 596.709 -4644.84
-1983.03 201.655 -4644.84
-1983.03 -201.655 -4644.84
-1901.85 -596.709 -4644.84
-1742.8 -967.333 -4644.84
-1512.4 -1298.35 -4644.84
-1220.09 -1576.22 -4644.84
-877.82 -1789.56 -4644.84
-499.616 -1929.63 -4644.84
-100.957 -1990.7 -4644.84
301.835 -1970.27 -4644.84
692.27 -1869.18 -4644.84
1054.36 -1691.57 -4644.84
1373.29 -1444.7 -4644.84
1635.99 -1138.69 -4644.84
1831.72 -786.054 -4644.84
1952.46 -401.24 -4644.84
1513.12 0 -4822.67
1482.15 304.589 -4822.67
1390.5 596.709 -4822.67
1241.92 864.399 -4822.67
1042.49 1096.7 -4822.67
800.387 1284.1 -4822.67
525.515 1418.93 -4822.67
229.129 1495.67 -4822.67
-76.6384 1511.18 -4822.67
-379.268 1464.82 -4822.67
-666.37 1358.49 -4822.67
-926.191 1196.54 -4822.67
-1148.09 985.606 -4822.67
-1322.99 734.321 -4822.67
-1443.73 452.973 -4822.67
-1505.36 153.08 -4822.67
-1505.36 -153.08 -4822.67
-1443.73 -452.973 -4822.67
-1322.99 -734.321 -4822.67
-1148.09 -985.606 -4822.67
-926.191 -1196.54 -4822.67
-666.37 -1358.49 -4822.67
-379.268 -1464.82 -4822.67
-76.6384 -1511.18 -4822.67
229.129 -1495.67 -4822.67
525.515 -1418.93 -4822.67
800.387 -1284.1 -4822.67
1042.49 -1096.7 -4822.67
1241.92 -864.399 -4822.67
1390.5 -596.709 -4822.67
1482.15 -304.589 -4822.67
1017.46 0 -4951
996.63 204.813 -4951
935 401.24 -4951
835.092 581.241 -4951
700.994 737.446 -4951
538.198 863.459 -4951
353.368 954.123 -4951
154.071 1005.72 -4951
-51.5334 1016.15 -4951
-255.028 984.977 -4951
-448.082 913.478 -4951
-622.792 804.581 -4951
-772.004 662.744 -4951
-889.61 493.774 -4951
-970.796 304.589 -4951
-1012.24 102.934 -4951
-1012.24 -102.934 -4951
-970.796 -304.589 -4951
-889.61 -493.774 -4951
-772.004 -662.744 -4951
-622.792 -804.581 -4951
-448.082 -913.478 -4951
-255.028 -984.977 -4951
-51.5334 -1016.15 -4951
154.071 -1005.72 -4951
353.368 -954.123 -4951
538.198 -863.459 -4951
700.994 -737.446 -4951
835.092 -581.241 -4951
935 -401.24 -4951
996.63 -204.813 -4951
511.352 0 -5028.54
500.885 102.934 -5028.54
469.911 201.655 -5028.54
419.699 292.119 -5028.54
352.305 370.624 -5028.54
270.487 433.956 -5028.54
177.595 479.522 -5028.54
77.4329 505.456 -5028.54
-25.8996 510.696 -5028.54
-128.172 495.028 -5028.54
-225.197 459.094 -5028.54
-313.002 404.365 -5028.54
-387.993 333.081 -5028.54
-447.099 248.16 -5028.54
-487.901 153.08 -5028.54
-508.729 51.7327 -5028.54
-508.729 -51.7327 -5028.54
-487.901 -153.08 -5028.54
-447.099 -248.16 -5028.54
-387.993 -333.081 -5028.54
-313.002 -404.365 -5028.54
-225.197 -459.094 -5028.54
-128.172 -495.028 -5028.54
-25.8996 -510.696 -5028.54
77.4329 -505.456 -5028.54
177.595 -479.522 -5028.54
270.487 -433.956 -5028.54
352.305 -370.624 -5028.54
419.699 -292.119 -5028.54
469.911 -201.655 -5028.54
500.885 -102.934 -5028.54
