ply
format ascii 1.0
element vertex 961
property float x
property float y
property float z
end_header
0 0 1000
0 0 1000
0 0 1000
0 0 1000
0 0 1000
0 0 1000
0 0 1000
0 0 1000
-0 0 1000
-0 0 1000
-0 0 1000
-0 0 1000
-0 0 1000
-0 0 1000
-0 0 1000
-0 0 1000
-0 -0 1000
-0 -0 1000
-0 -0 1000
-0 -0 1000
-0 -0 1000
-0 -0 1000
-0 -0 1000
-0 -0 1000
0 -0 1000
0 -0 1000
0 -0 1000
0 -0 1000
0 -0 1000
0 -0 1000
0 -0 1000
101.168 0 994.869
99.0974 20.365 994.869
92.9694 39.8963 994.869
83.0353 57.7942 994.869
69.7016 73.3261 994.869
53.5144 85.8559 994.869
35.1363 94.8708 994.869
15.3197 100.002 994.869
-5.12409 101.038 994.869
-25.3581 97.9387 994.869
-44.5539 90.8294 994.869
-61.9257 80.0015 994.869
-76.7623 65.8983 994.869
-88.4562 49.0972 994.869
-96.5287 30.2861 994.869
-100.649 10.235 994.869
-100.649 -10.235 994.869
-96.5287 -30.2861 994.869
-88.4562 -49.0972 994.869
-76.7623 -65.8983 994.869
-61.9257 -80.0015 994.869
-44.5539 -90.8294 994.869
-25.3581 -97.9387 994.869
-5.12409 -101.038 994.869
15.3197 -100.002 994.869
35.1363 -94.8708 994.869
53.5144 -85.8559 994.869
69.7016 -73.3261 994.869
83.0353 -57.7942 994.869
92.9694 -39.8963 994.869
99.0974 -20.365 994.869
201.299 0 979.53
197.178 40.5211 979.53
184.985 79.3833 979.53
165.218 114.995 979.53
138.688 145.9 979.53
106.48 170.831 979.53
69.912 188.768 979.53
30.4822 198.977 979.53
-10.1956 201.04 979.53
-50.456 194.872 979.53
-88.6507 180.727 979.53
-123.216 159.182 979.53
-152.737 131.12 979.53
-176.005 97.6906 979.53
-192.067 60.2614 979.53
-200.266 20.365 979.53
-200.266 -20.365 979.53
-192.067 -60.2614 979.53
-176.005 -97.6906 979.53
-152.737 -131.12 979.53
-123.216 -159.182 979.53
-88.6507 -180.727 979.53
-50.456 -194.872 979.53
-10.1956 -201.04 979.53
30.4822 -198.977 979.53
69.912 -188.768 979.53
106.48 -170.831 979.53
138.688 -145.9 979.53
165.218 -114.995 979.53
184.985 -79.3833 979.53
197.178 -40.5211 979.53
299.363 0 954.139
293.235 60.2614 954.139
275.102 118.056 954.139
245.706 171.017 954.139
206.251 216.976 954.139
158.352 254.053 954.139
103.97 280.728 954.139
45.3319 295.911 954.139
-15.1625 298.979 954.139
-75.0361 289.807 954.139
-131.838 268.77 954.139
-183.242 236.729 954.139
-227.144 194.997 954.139
-261.747 145.282 954.139
-285.634 89.6183 954.139
-297.827 30.2861 954.139
-297.827 -30.2861 954.139
-285.634 -89.6183 954.139
-261.747 -145.282 954.139
-227.144 -194.997 954.139
-183.242 -236.729 954.139
-131.838 -268.77 954.139
-75.0361 -289.807 954.139
-15.1625 -298.979 954.139
45.3319 -295.911 954.139
103.97 -280.728 954.139
158.352 -254.053 954.139
206.251 -216.976 954.139
245.706 -171.017 954.139
275.102 -118.056 954.139
293.235 -60.2614 954.139
394.356 0 918.958
386.283 79.3833 918.958
362.396 155.517 918.958
323.673 225.283 918.958
271.698 285.826 918.958
208.6 334.668 918.958
136.962 369.808 918.958
59.7164 389.808 918.958
-19.9738 393.85 918.958
-98.8463 381.767 918.958
-173.672 354.054 918.958
-241.388 311.847 918.958
-299.221 256.873 918.958
-344.804 191.382 918.958
-376.27 118.056 918.958
-392.333 39.8963 918.958
-392.333 -39.8963 918.958
-376.27 -118.056 918.958
-344.804 -191.382 918.958
-299.221 -256.873 918.958
-241.388 -311.847 918.958
-173.672 -354.054 918.958
-98.8463 -381.767 918.958
-19.9738 -393.85 918.958
59.7164 -389.808 918.958
136.962 -369.808 918.958
208.6 -334.668 918.958
271.698 -285.826 918.958
323.673 -225.283 918.958
362.396 -155.517 918.958
386.283 -79.3833 918.958
485.302 0 874.347
475.368 97.6906 874.347
445.972 191.382 874.347
398.318 277.238 874.347
334.357 351.743 874.347
256.707 411.849 874.347
168.548 455.093 874.347
73.4882 479.706 874.347
-24.5801 484.679 874.347
-121.642 469.81 874.347
-213.724 435.706 874.347
-297.056 383.765 874.347
-368.227 316.112 874.347
-424.322 235.518 874.347
-463.046 145.282 874.347
-482.812 49.0972 874.347
-482.812 -49.0972 874.347
-463.046 -145.282 874.347
-424.322 -235.518 874.347
-368.227 -316.112 874.347
-297.056 -383.765 874.347
-213.724 -435.706 874.347
-121.642 -469.81 874.347
-24.5801 -484.679 874.347
73.4882 -479.706 874.347
168.548 -455.093 874.347
256.707 -411.849 874.347
334.357 -351.743 874.347
398.318 -277.238 874.347
445.972 -191.382 874.347
475.368 -97.6906 874.347
571.268 0 820.763
559.574 114.995 820.763
524.971 225.283 820.763
468.876 326.347 820.763
393.585 414.051 820.763
302.18 484.803 820.763
198.404 535.708 820.763
86.5059 564.681 820.763
-28.9343 570.535 820.763
-143.19 553.032 820.763
-251.583 512.887 820.763
-349.677 451.745 820.763
-433.454 372.108 820.763
-499.486 277.238 820.763
-545.069 171.017 820.763
-568.337 57.7942 820.763
-568.337 -57.7942 820.763
-545.069 -171.017 820.763
-499.486 -277.238 820.763
-433.454 -372.108 820.763
-349.677 -451.745 820.763
-251.583 -512.887 820.763
-143.19 -553.032 820.763
-28.9343 -570.535 820.763
86.5059 -564.681 820.763
198.404 -535.708 820.763
302.18 -484.803 820.763
393.585 -414.051 820.763
468.876 -326.347 820.763
524.971 -225.283 820.763
559.574 -114.995 820.763
651.372 0 758.758
638.039 131.12 758.758
598.584 256.873 758.758
534.623 372.108 758.758
448.774 472.11 758.758
344.553 552.784 758.758
226.225 610.826 758.758
98.6359 643.861 758.758
-32.9915 650.536 758.758
-163.268 630.579 758.758
-286.861 584.805 758.758
-398.709 515.09 758.758
-494.234 424.286 758.758
-569.525 316.112 758.758
-621.5 194.997 758.758
-648.031 65.8983 758.758
-648.031 -65.8983 758.758
-621.5 -194.997 758.758
-569.525 -316.112 758.758
-494.234 -424.286 758.758
-398.709 -515.09 758.758
-286.861 -584.805 758.758
-163.268 -630.579 758.758
-32.9915 -650.536 758.758
98.6359 -643.861 758.758
226.225 -610.826 758.758
344.553 -552.784 758.758
448.774 -472.11 758.758
534.623 -372.108 758.758
598.584 -256.873 758.758
638.039 -131.12 758.758
724.793 0 688.967
709.956 145.9 688.967
666.054 285.826 688.967
594.883 414.051 688.967
499.358 525.325 688.967
383.389 615.091 688.967
251.724 679.676 688.967
109.754 716.435 688.967
-36.7102 723.863 688.967
-181.671 701.655 688.967
-319.195 650.722 688.967
-443.65 573.149 688.967
-549.942 472.11 688.967
-633.72 351.743 688.967
-691.553 216.976 688.967
-721.074 73.3261 688.967
-721.074 -73.3261 688.967
-691.553 -216.976 688.967
-633.72 -351.743 688.967
-549.942 -472.11 688.967
-443.65 -573.149 688.967
-319.195 -650.722 688.967
-181.671 -701.655 688.967
-36.7102 -723.863 688.967
109.754 -716.435 688.967
251.724 -679.676 688.967
383.389 -615.091 688.967
499.358 -525.325 688.967
594.883 -414.051 688.967
666.054 -285.826 688.967
709.956 -145.9 688.967
790.776 0 612.106
774.589 159.182 612.106
726.69 311.847 612.106
649.04 451.745 612.106
544.818 573.149 612.106
418.292 671.087 612.106
274.641 741.552 612.106
119.745 781.657 612.106
-40.0521 789.761 612.106
-198.21 765.532 612.106
-348.253 709.962 612.106
-484.039 625.326 612.106
-600.008 515.09 612.106
-691.412 383.765 612.106
-754.51 236.729 612.106
-786.719 80.0015 612.106
-786.719 -80.0015 612.106
-754.51 -236.729 612.106
-691.412 -383.765 612.106
-600.008 -515.09 612.106
-484.039 -625.326 612.106
-348.253 -709.962 612.106
-198.21 -765.532 612.106
-40.0521 -789.761 612.106
119.745 -781.657 612.106
274.641 -741.552 612.106
418.292 -671.087 612.106
544.818 -573.149 612.106
649.04 -451.745 612.106
726.69 -311.847 612.106
774.589 -159.182 612.106
848.644 0 528.964
831.272 170.831 528.964
779.868 334.668 528.964
696.536 484.803 528.964
584.688 615.091 528.964
448.902 720.197 528.964
294.739 795.818 528.964
128.508 838.858 528.964
-42.9831 847.555 528.964
-212.715 821.553 528.964
-373.738 761.917 528.964
-519.46 671.087 528.964
-643.916 552.784 528.964
-742.009 411.849 528.964
-809.725 254.053 528.964
-844.29 85.8559 528.964
-844.29 -85.8559 528.964
-809.725 -254.053 528.964
-742.009 -411.849 528.964
-643.916 -552.784 528.964
-519.46 -671.087 528.964
-373.738 -761.917 528.964
-212.715 -821.553 528.964
-42.9831 -847.555 528.964
128.508 -838.858 528.964
294.739 -795.818 528.964
448.902 -720.197 528.964
584.688 -615.091 528.964
696.536 -484.803 528.964
779.868 -334.668 528.964
831.272 -170.831 528.964
897.805 0 440.394
879.426 180.727 440.394
825.044 354.054 440.394
736.885 512.887 440.394
618.558 650.722 440.394
474.906 761.917 440.394
311.812 841.918 440.394
135.953 887.451 440.394
-45.4731 896.652 440.394
-225.037 869.144 440.394
-395.388 806.053 440.394
-549.552 709.962 440.394
-681.216 584.805 440.394
-784.992 435.706 440.394
-856.631 268.77 440.394
-893.198 90.8294 440.394
-893.198 -90.8294 440.394
-856.631 -268.77 440.394
-784.992 -435.706 440.394
-681.216 -584.805 440.394
-549.552 -709.962 440.394
-395.388 -806.053 440.394
-225.037 -869.144 440.394
-45.4731 -896.652 440.394
135.953 -887.451 440.394
311.812 -841.918 440.394
474.906 -761.917 440.394
618.558 -650.722 440.394
736.885 -512.887 440.394
825.044 -354.054 440.394
879.426 -180.727 440.394
937.752 0 347.305
918.556 188.768 347.305
861.755 369.808 347.305
769.673 535.708 347.305
646.08 679.676 347.305
496.037 795.818 347.305
325.686 879.379 347.305
142.002 926.938 347.305
-47.4964 936.549 347.305
-235.05 907.816 347.305
-412.981 841.918 347.305
-574.004 741.552 347.305
-711.527 610.826 347.305
-819.92 455.093 347.305
-894.746 280.728 347.305
-932.941 94.8708 347.305
-932.941 -94.8708 347.305
-894.746 -280.728 347.305
-819.92 -455.093 347.305
-711.527 -610.826 347.305
-574.004 -741.552 347.305
-412.981 -841.918 347.305
-235.05 -907.816 347.305
-47.4964 -936.549 347.305
142.002 -926.938 347.305
325.686 -879.379 347.305
496.037 -795.818 347.305
646.08 -679.676 347.305
769.673 -535.708 347.305
861.755 -369.808 347.305
918.556 -188.768 347.305
968.077 0 250.653
948.261 194.872 250.653
889.622 381.767 250.653
794.562 553.032 250.653
666.973 701.655 250.653
512.078 821.553 250.653
336.218 907.816 250.653
146.594 956.914 250.653
-49.0323 966.835 250.653
-242.651 937.173 250.653
-426.336 869.144 250.653
-592.566 765.532 250.653
-734.536 630.579 250.653
-846.435 469.81 250.653
-923.68 289.807 250.653
-963.11 97.9387 250.653
-963.11 -97.9387 250.653
-923.68 -289.807 250.653
-846.435 -469.81 250.653
-734.536 -630.579 250.653
-592.566 -765.532 250.653
-426.336 -869.144 250.653
-242.651 -937.173 250.653
-49.0323 -966.835 250.653
146.594 -956.914 250.653
336.218 -907.816 250.653
512.078 -821.553 250.653
666.973 -701.655 250.653
794.562 -553.032 250.653
889.622 -381.767 250.653
948.261 -194.872 250.653
988.468 0 151.428
968.234 198.977 151.428
908.361 389.808 151.428
811.299 564.681 151.428
681.022 716.435 151.428
522.864 838.858 151.428
343.3 926.938 151.428
149.682 977.07 151.428
-50.0651 987.2 151.428
-247.762 956.914 151.428
-435.316 887.451 151.428
-605.047 781.657 151.428
-750.008 643.861 151.428
-864.264 479.706 151.428
-943.136 295.911 151.428
-983.397 100.002 151.428
-983.397 -100.002 151.428
-943.136 -295.911 151.428
-864.264 -479.706 151.428
-750.008 -643.861 151.428
-605.047 -781.657 151.428
-435.316 -887.451 151.428
-247.762 -956.914 151.428
-50.0651 -987.2 151.428
149.682 -977.07 151.428
343.3 -926.938 151.428
522.864 -838.858 151.428
681.022 -716.435 151.428
811.299 -564.681 151.428
908.361 -389.808 151.428
968.234 -198.977 151.428
998.717 0 50.6492
978.273 201.04 50.6492
917.778 393.85 50.6492
819.71 570.535 50.6492
688.083 723.863 50.6492
528.285 847.555 50.6492
346.859 936.549 50.6492
151.233 987.2 50.6492
-50.5842 997.435 50.6492
-250.331 966.835 50.6492
-439.829 896.652 50.6492
-611.32 789.761 50.6492
-757.784 650.536 50.6492
-873.224 484.679 50.6492
-952.915 298.979 50.6492
-993.592 101.038 50.6492
-993.592 -101.038 50.6492
-952.915 -298.979 50.6492
-873.224 -484.679 50.6492
-757.784 -650.536 50.6492
-611.32 -789.761 50.6492
-439.829 -896.652 50.6492
-250.331 -966.835 50.6492
-50.5842 -997.435 50.6492
151.233 -987.2 50.6492
346.859 -936.549 50.6492
528.285 -847.555 50.6492
688.083 -723.863 50.6492
819.71 -570.535 50.6492
917.778 -393.85 50.6492
978.273 -201.04 50.6492
998.717 0 -50.6492
978.273 201.04 -50.6492
917.778 393.85 -50.6492
819.71 570.535 -50.6492
688.083 723.863 -50.6492
528.285 847.555 -50.6492
346.859 936.549 -50.6492
151.233 987.2 -50.6492
-50.5842 997.435 -50.6492
-250.331 966.835 -50.6492
-439.829 896.652 -50.6492
-611.32 789.761 -50.6492
-757.784 650.536 -50.6492
-873.224 484.679 -50.6492
-952.915 298.979 -50.6492
-993.592 101.038 -50.6492
-993.592 -101.038 -50.6492
-952.915 -298.979 -50.6492
-873.224 -484.679 -50.6492
-757.784 -650.536 -50.6492
-611.32 -789.761 -50.6492
-439.829 -896.652 -50.6492
-250.331 -966.835 -50.6492
-50.5842 -997.435 -50.6492
151.233 -987.2 -50.6492
346.859 -936.549 -50.6492
528.285 -847.555 -50.6492
688.083 -723.863 -50.6492
819.71 -570.535 -50.6492
917.778 -393.85 -50.6492
978.273 -201.04 -50.6492
988.468 0 -151.428
968.234 198.977 -151.428
908.361 389.808 -151.428
811.299 564.681 -151.428
681.022 716.435 -151.428
522.864 838.858 -151.428
343.3 926.938 -151.428
149.682 977.07 -151.428
-50.0651 987.2 -151.428
-247.762 956.914 -151.428
-435.316 887.451 -151.428
-605.047 781.657 -151.428
-750.008 643.861 -151.428
-864.264 479.706 -151.428
-943.136 295.911 -151.428
-983.397 100.002 -151.428
-983.397 -100.002 -151.428
-943.136 -295.911 -151.428
-864.264 -479.706 -151.428
-750.008 -643.861 -151.428
-605.047 -781.657 -151.428
-435.316 -887.451 -151.428
-247.762 -956.914 -151.428
-50.0651 -987.2 -151.428
149.682 -977.07 -151.428
343.3 -926.938 -151.428
522.864 -838.858 -151.428
681.022 -716.435 -151.428
811.299 -564.681 -151.428
908.361 -389.808 -151.428
968.234 -198.977 -151.428
968.077 0 -250.653
948.261 194.872 -250.653
889.622 381.767 -250.653
794.562 553.032 -250.653
666.973 701.655 -250.653
512.078 821.553 -250.653
336.218 907.816 -250.653
146.594 956.914 -250.653
-49.0323 966.835 -250.653
-242.651 937.173 -250.653
-426.336 869.144 -250.653
-592.566 765.532 -250.653
-734.536 630.579 -250.653
-846.435 469.81 -250.653
-923.68 289.807 -250.653
-963.11 97.9387 -250.653
-963.11 -97.9387 -250.653
-923.68 -289.807 -250.653
-846.435 -469.81 -250.653
-734.536 -630.579 -250.653
-592.566 -765.532 -250.653
-426.336 -869.144 -250.653
-242.651 -937.173 -250.653
-49.0323 -966.835 -250.653
146.594 -956.914 -250.653
336.218 -907.816 -250.653
512.078 -821.553 -250.653
666.973 -701.655 -250.653
794.562 -553.032 -250.653
889.622 -381.767 -250.653
948.261 -194.872 -250.653
937.752 0 -347.305
918.556 188.768 -347.305
861.755 369.808 -347.305
769.673 535.708 -347.305
646.08 679.676 -347.305
496.037 795.818 -347.305
325.686 879.379 -347.305
142.002 926.938 -347.305
-47.4964 936.549 -347.305
-235.05 907.816 -347.305
-412.981 841.918 -347.305
-574.004 741.552 -347.305
-711.527 610.826 -347.305
-819.92 455.093 -347.305
-894.746 280.728 -347.305
-932.941 94.8708 -347.305
-932.941 -94.8708 -347.305
-894.746 -280.728 -347.305
-819.92 -455.093 -347.305
-711.527 -610.826 -347.305
-574.004 -741.552 -347.305
-412.981 -841.918 -347.305
-235.05 -907.816 -347.305
-47.4964 -936.549 -347.305
142.002 -926.938 -347.305
325.686 -879.379 -347.305
496.037 -795.818 -347.305
646.08 -679.676 -347.305
769.673 -535.708 -347.305
861.755 -369.808 -347.305
918.556 -188.768 -347.305
897.805 0 -440.394
879.426 180.727 -440.394
825.044 354.054 -440.394
736.885 512.887 -440.394
618.558 650.722 -440.394
474.906 761.917 -440.394
311.812 841.918 -440.394
135.953 887.451 -440.394
-45.4731 896.652 -440.394
-225.037 869.144 -440.394
-395.388 806.053 -440.394
-549.552 709.962 -440.394
-681.216 584.805 -440.394
-784.992 435.706 -440.394
-856.631 268.77 -440.394
-893.198 90.8294 -440.394
-893.198 -90.8294 -440.394
-856.631 -268.77 -440.394
-784.992 -435.706 -440.394
-681.216 -584.805 -440.394
-549.552 -709.962 -440.394
-395.388 -806.053 -440.394
-225.037 -869.144 -440.394
-45.4731 -896.652 -440.394
135.953 -887.451 -440.394
311.812 -841.918 -440.394
474.906 -761.917 -440.394
618.558 -650.722 -440.394
736.885 -512.887 -440.394
825.044 -354.054 -440.394
879.426 -180.727 -440.394
848.644 0 -528.964
831.272 170.831 -528.964
779.868 334.668 -528.964
696.536 484.803 -528.964
584.688 615.091 -528.964
448.902 720.197 -528.964
294.739 795.818 -528.964
128.508 838.858 -528.964
-42.9831 847.555 -528.964
-212.715 821.553 -528.964
-373.738 761.917 -528.964
-519.46 671.087 -528.964
-643.916 552.784 -528.964
-742.009 411.849 -528.964
-809.725 254.053 -528.964
-844.29 85.8559 -528.964
-844.29 -85.8559 -528.964
-809.725 -254.053 -528.964
-742.009 -411.849 -528.964
-643.916 -552.784 -528.964
-519.46 -671.087 -528.964
-373.738 -761.917 -528.964
-212.715 -821.553 -528.964
-42.9831 -847.555 -528.964
128.508 -838.858 -528.964
294.739 -795.818 -528.964
448.902 -720.197 -528.964
584.688 -615.091 -528.964
696.536 -484.803 -528.964
779.868 -334.668 -528.964
831.272 -170.831 -528.964
790.776 0 -612.106
774.589 159.182 -612.106
726.69 311.847 -612.106
649.04 451.745 -612.106
544.818 573.149 -612.106
418.292 671.087 -612.106
274.641 741.552 -612.106
119.745 781.657 -612.106
-40.0521 789.761 -612.106
-198.21 765.532 -612.106
-348.253 709.962 -612.106
-484.039 625.326 -612.106
-600.008 515.09 -612.106
-691.412 383.765 -612.106
-754.51 236.729 -612.106
-786.719 80.0015 -612.106
-786.719 -80.0015 -612.106
-754.51 -236.729 -612.106
-691.412 -383.765 -612.106
-600.008 -515.09 -612.106
-484.039 -625.326 -612.106
-348.253 -709.962 -612.106
-198.21 -765.532 -612.106
-40.0521 -789.761 -612.106
119.745 -781.657 -612.106
274.641 -741.552 -612.106
418.292 -671.087 -612.106
544.818 -573.149 -612.106
649.04 -451.745 -612.106
726.69 -311.847 -612.106
774.589 -159.182 -612.106
724.793 0 -688.967
709.956 145.9 -688.967
666.054 285.826 -688.967
594.883 414.051 -688.967
499.358 525.325 -688.967
383.389 615.091 -688.967
251.724 679.676 -688.967
109.754 716.435 -688.967
-36.7102 723.863 -688.967
-181.671 701.655 -688.967
-319.195 650.722 -688.967
-443.65 573.149 -688.967
-549.942 472.11 -688.967
-633.72 351.743 -688.967
-691.553 216.976 -688.967
-721.074 73.3261 -688.967
-721.074 -73.3261 -688.967
-691.553 -216.976 -688.967
-633.72 -351.743 -688.967
-549.942 -472.11 -688.967
-443.65 -573.149 -688.967
-319.195 -650.722 -688.967
-181.671 -701.655 -688.967
-36.7102 -723.863 -688.967
109.754 -716.435 -688.967
251.724 -679.676 -688.967
383.389 -615.091 -688.967
499.358 -525.325 -688.967
594.883 -414.051 -688.967
666.054 -285.826 -688.967
709.956 -145.9 -688.967
651.372 0 -758.758
638.039 131.12 -758.758
598.584 256.873 -758.758
534.623 372.108 -758.758
448.774 472.11 -758.758
344.553 552.784 -758.758
226.225 610.826 -758.758
98.6359 643.861 -758.758
-32.9915 650.536 -758.758
-163.268 630.579 -758.758
-286.861 584.805 -758.758
-398.709 515.09 -758.758
-494.234 424.286 -758.758
-569.525 316.112 -758.758
-621.5 194.997 -758.758
-648.031 65.8983 -758.758
-648.031 -65.8983 -758.758
-621.5 -194.997 -758.758
-569.525 -316.112 -758.758
-494.234 -424.286 -758.758
-398.709 -515.09 -758.758
-286.861 -584.805 -758.758
-163.268 -630.579 -758.758
-32.9915 -650.536 -758.758
98.6359 -643.861 -758.758
226.225 -610.826 -758.758
344.553 -552.784 -758.758
448.774 -472.11 -758.758
534.623 -372.108 -758.758
598.584 -256.873 -758.758
638.039 -131.12 -758.758
571.268 0 -820.763
559.574 114.995 -820.763
524.971 225.283 -820.763
468.876 326.347 -820.763
393.585 414.051 -820.763
302.18 484.803 -820.763
198.404 535.708 -820.763
86.5059 564.681 -820.763
-28.9343 570.535 -820.763
-143.19 553.032 -820.763
-251.583 512.887 -820.763
-349.677 451.745 -820.763
-433.454 372.108 -820.763
-499.486 277.238 -820.763
-545.069 171.017 -820.763
-568.337 57.7942 -820.763
-568.337 -57.7942 -820.763
-545.069 -171.017 -820.763
-499.486 -277.238 -820.763
-433.454 -372.108 -820.763
-349.677 -451.745 -820.763
-251.583 -512.887 -820.763
-143.19 -553.032 -820.763
-28.9343 -570.535 -820.763
86.5059 -564.681 -820.763
198.404 -535.708 -820.763
302.18 -484.803 -820.763
393.585 -414.051 -820.763
468.876 -326.347 -820.763
524.971 -225.283 -820.763
559.574 -114.995 -820.763
485.302 0 -874.347
475.368 97.6906 -874.347
445.972 191.382 -874.347
398.318 277.238 -874.347
334.357 351.743 -874.347
256.707 411.849 -874.347
168.548 455.093 -874.347
73.4882 479.706 -874.347
-24.5801 484.679 -874.347
-121.642 469.81 -874.347
-213.724 435.706 -874.347
-297.056 383.765 -874.347
-368.227 316.112 -874.347
-424.322 235.518 -874.347
-463.046 145.282 -874.347
-482.812 49.0972 -874.347
-482.812 -49.0972 -874.347
-463.046 -145.282 -874.347
-424.322 -235.518 -874.347
-368.227 -316.112 -874.347
-297.056 -383.765 -874.347
-213.724 -435.706 -874.347
-121.642 -469.81 -874.347
-24.5801 -484.679 -874.347
73.4882 -479.706 -874.347
168.548 -455.093 -874.347
256.707 -411.849 -874.347
334.357 -351.743 -874.347
398.318 -277.238 -874.347
445.972 -191.382 -874.347
475.368 -97.6906 -874.347
394.356 0 -918.958
386.283 79.3833 -918.958
362.396 155.517 -918.958
323.673 225.283 -918.958
271.698 285.826 -918.958
208.6 334.668 -918.958
136.962 369.808 -918.958
59.7164 389.808 -918.958
-19.9738 393.85 -918.958
-98.8463 381.767 -918.958
-173.672 354.054 -918.958
-241.388 311.847 -918.958
-299.221 256.873 -918.958
-344.804 191.382 -918.958
-376.27 118.056 -918.958
-392.333 39.8963 -918.958
-392.333 -39.8963 -918.958
-376.27 -118.056 -918.958
-344.804 -191.382 -918.958
-299.221 -256.873 -918.958
-241.388 -311.847 -918.958
-173.672 -354.054 -918.958
-98.8463 -381.767 -918.958
-19.9738 -393.85 -918.958
59.7164 -389.808 -918.958
136.962 -369.808 -918.958
208.6 -334.668 -918.958
271.698 -285.826 -918.958
323.673 -225.283 -918.958
362.396 -155.517 -918.958
386.283 -79.3833 -918.958
299.363 0 -954.139
293.235 60.2614 -954.139
275.102 118.056 -954.139
245.706 171.017 -954.139
206.251 216.976 -954.139
158.352 254.053 -954.139
103.97 280.728 -954.139
45.3319 295.911 -954.139
-15.1625 298.979 -954.139
-75.0361 289.807 -954.139
-131.838 268.77 -954.139
-183.242 236.729 -954.139
-227.144 194.997 -954.139
-261.747 145.282 -954.139
-285.634 89.6183 -954.139
-297.827 30.2861 -954.139
-297.827 -30.2861 -954.139
-285.634 -89.6183 -954.139
-261.747 -145.282 -954.139
-227.144 -194.997 -954.139
-183.242 -236.729 -954.139
-131.838 -268.77 -954.139
-75.0361 -289.807 -954.139
-15.1625 -298.979 -954.139
45.3319 -295.911 -954.139
103.97 -280.728 -954.139
158.352 -254.053 -954.139
206.251 -216.976 -954.139
245.706 -171.017 -954.139
275.102 -118.056 -954.139
293.235 -60.2614 -954.139
201.299 0 -979.53
197.178 40.5211 -979.53
184.985 79.3833 -979.53
165.218 114.995 -979.53
138.688 145.9 -979.53
106.48 170.831 -979.53
69.912 188.768 -979.53
30.4822 198.977 -979.53
-10.1956 201.04 -979.53
-50.456 194.872 -979.53
-88.6507 180.727 -979.53
-123.216 159.182 -979.53
-152.737 131.12 -979.53
-176.005 97.6906 -979.53
-192.067 60.2614 -979.53
-200.266 20.365 -979.53
-200.266 -20.365 -979.53
-192.067 -60.2614 -979.53
-176.005 -97.6906 -979.53
-152.737 -131.12 -979.53
-123.216 -159.182 -979.53
-88.6507 -180.727 -979.53
-50.456 -194.872 -979.53
-10.1956 -201.04 -979.53
30.4822 -198.977 -979.53
69.912 -188.768 -979.53
106.48 -170.831 -979.53
138.688 -145.9 -979.53
165.218 -114.995 -979.53
184.985 -79.3833 -979.53
197.178 -40.5211 -979.53
101.168 0 -994.869
99.0974 20.365 -994.869
92.9694 39.8963 -994.869
83.0353 57.7942 -994.869
69.7016 73.3261 -994.869
53.5144 85.8559 -994.869
35.1363 94.8708 -994.869
15.3197 100.002 -994.869
-5.12409 101.038 -994.869
-25.3581 97.9387 -994.869
-44.5539 90.8294 -994.869
-61.9257 80.0015 -994.869
-76.7623 65.8983 -994.869
-88.4562 49.0972 -994.869
-96.5287 30.2861 -994.869
-100.649 10.235 -994.869
-100.649 -10.235 -994.869
-96.5287 -30.2861 -994.869
-88.4562 -49.0972 -994.869
-76.7623 -65.8983 -994.869
-61.9257 -80.0015 -994.869
-44.5539 -90.8294 -994.869
-25.3581 -97.9387 -994.869
-5.12409 -101.038 -994.869
15.3197 -100.002 -994.869
35.1363 -94.8708 -994.869
53.5144 -85.8559 -994.869
69.7016 -73.3261 -994.869
83.0353 -57.7942 -994.869
92.9694 -39.8963 -994.869
99.0974 -20.365 -994.869
